# 3D point list with one line of data per point:
#   POINT3D_ID, X, Y, Z, R, G, B, ERROR, TRACK[] as (IMAGE_ID, POINT2D_IDX)
# Number of points: 392, mean track length: 3.1033091866973987
2119 13.789149981658564 1.078673803611077 16.728168443649771 160 160 152 2.0059483405709186 7 2571 6 2676 10 2240 1 2818 11 3887
2120 -3.8230653911199259 1.2644071346690722 17.892042561178105 30 30 32 0.46730473641602943 7 1892 6 2677 10 3683
2121 -7.4761041630960143 1.3784498166422583 17.932692195634726 19 19 19 1.6598839904603635 11 8165 6 2680 10 3686
2123 10.657692435978378 1.5832982755709586 16.858283912908643 170 165 143 1.3132504596811363 11 4337 6 2689 1 2812 2 2153 10 2246 7 2481 4 1742
2124 -0.17989026811583389 1.7637816001530902 17.019605548350714 147 132 119 1.3663497643334042 7 1906 6 2696
2125 -8.1465301788628377 1.875129579067311 16.901143141840244 151 144 136 2.2148208820868187 7 2000 6 2697 10 2210
2126 1.7311126377122321 1.8468544512259635 17.137490972955611 57 54 59 0.75920148004953369 11 3895 6 2699
2128 10.99455095187715 2.0824723428585599 16.70513574296276 64 66 61 1.2671106920351833 11 6034 6 2712 10 1346 7 1882
2129 -7.4274225676297982 2.3243549130128613 17.667703047761798 96 110 111 2.617622517746526 7 1863 6 2715
2131 7.1585084565022976 2.1325859949152273 16.641663939932087 201 199 187 1.2018123110079817 11 3916 6 2717 10 2249 12 2244 1 1725 2 1881
2132 -8.130854621438468 2.4229314670979365 16.620462262228017 143 142 132 0.79789961197382753 7 2033 6 2725
2133 13.563689343517147 2.349927590879767 16.283397584658381 120 134 145 1.4709815694216271 7 3472 10 2259 3 4541 1 2872 2 4335 13 2987
2135 13.814487438658816 2.1924736520864787 13.45414691905904 145 89 72 2.3635145069324848 12 2898 1 3645 8 4192 9 5210
2138 13.606927723299346 2.5948561679235391 14.150328725269716 125 75 61 0.18565274674675886 6 2739 1 3667
2139 6.760154879946132 3.1979972158858772 16.182845766051802 145 101 89 1.1733095702417276 7 2521 6 2742 10 3514 2 2207
2140 13.881284124841873 3.2926892426265444 15.447140338751572 109 66 57 1.64941159114804 7 2526 10 3403 12 2923 1 3700 2 2835
2141 10.343056301233675 3.3938241556122222 16.003864572862824 136 100 90 0.040939119814983597 11 2718 6 2745
2142 9.127183044976297 3.4110039661725806 16.028584671386561 142 88 74 1.2335234513465989 11 2717 6 2747 3 2768 1 2898
2144 -5.4736835242951196 3.575930232458997 16.460983016940581 130 84 71 1.5549810532365202 11 3085 6 2749 10 3246 5 2465
2147 -2.6634182020944643 3.7768725243560879 16.207520606663316 139 87 72 2.19262946357208 11 2731 6 2759 10 3529 5 3017 12 1691
2148 -4.1565422394395561 3.848532372849673 16.385343024185307 130 83 73 0.62466685394362287 7 2545 6 2760 10 3539
2149 -7.1938575043990545 3.9210290343961067 16.368583137819659 127 82 70 0.48856023164474266 11 2721 6 2763
2150 12.634723977457524 3.8359059567111538 15.761932520963219 97 78 72 1.4094140281472731 7 2549 11 2742 1 2936 2 2860 6 2765 10 3031 3 4645 12 2938
2152 13.887396385193489 3.6463976189286305 14.470737488787105 116 78 67 1.9137794245194326 11 3319 10 3373 2 5470 1 6913 7 2553 3 2831 13 3037
2153 -8.1877393397300775 4.1462422663836476 16.244669720340355 107 75 69 0.86539148058230531 11 2737 6 2770
2154 11.797751617184405 4.0758458347246211 15.683087891018557 124 81 72 1.6333805577127645 11 4611 6 2771 10 2728 12 2956 7 5837 1 2952 2 2875
2156 8.2999506952316562 4.1912809043215491 15.716455563392829 138 96 82 1.3634498746300063 7 2995 11 4620 6 2774 3 2797 1 2933 2 2258 12 2382
2157 11.536261759409799 4.347896321607303 15.916217863825791 13 13 13 2.1907261071797928 7 1488 6 2778 10 2287 11 2757 2 1175
2158 -3.6916290651794155 6.0592847333746676 15.665407060508954 27 25 26 0.63030222472254938 7 2885 6 2779 10 4528 5 3116
2159 8.9299746308730139 4.3020319893760304 15.673364285578769 138 103 97 1.5441487420063316 7 2989 11 4629 6 2780 10 2696 2 2268 1 1814 3 4638 12 2950
2160 4.4247963590786208 4.3048394396325955 15.782106680905557 127 84 70 1.7421516410919855 7 2593 6 2782 10 3377 3 2306
2161 10.773043101096835 4.356760873197091 15.560444594265604 133 89 75 1.0128078763521722 7 2986 11 4636 10 3362 6 2784 12 2970 2 2896
2162 -3.8996180321420955 4.4126970461505648 16.008480720755038 200 196 187 0.50835467344594409 11 2755 6 2785 10 3445
2163 4.1432429313999615 4.2682806291298467 15.491648904444437 126 91 79 2.3247495184016977 6 2786 2 2242 10 3324
2164 0.76661157484863152 4.4369061747544967 15.90587590795143 120 91 85 2.0805617028740966 6 2788 3 1311 11 2759
2165 3.8726664792869383 4.3271839964988379 15.389415400084475 138 91 76 1.8644252756939081 6 2791 2 2244
2166 8.0087047940401721 4.5222984695330268 15.890679063480265 57 71 72 0.48079212631599649 11 2770 6 2792 3 2807
2167 7.7772868141195621 4.5949990849607358 15.929664119495392 62 73 75 1.0491678013636891 11 4645 6 2795 3 6209
2168 -0.65528143043861475 4.5249646286710217 15.859894034589217 142 89 73 0.50547955725232052 12 1781 10 3392 5 2306
2170 0.081456101876781831 4.6181921949237532 15.811390661948391 122 87 76 1.165186772392327 7 2967 6 2804 10 3379 12 2359
2172 0.4493140493793894 4.8132988121902587 16.12877448644732 61 71 73 1.9021094624588857 10 3147 5 2301 3 2948 11 4657
2173 9.9692779777125935 4.9749647688347052 15.267714469619355 126 72 60 1.8047766679215684 7 2232 6 2821 10 3295 2 2792 4 1862
2174 8.5976742253880936 5.1469514345797371 15.688297568003815 46 41 45 0.70890109174468741 7 2137 6 2823
2176 6.8075889482885632 5.1066163273636489 15.376220846107381 123 75 63 0.96606358979247842 7 2934 6 2827 10 3310 12 2997 3 2838 2 2300
2177 5.9096884403619079 5.1428691008011329 15.381038733076458 134 81 66 1.703837978373856 7 2141 6 2830 10 3318 12 2415 3 1620 2 1381
2178 2.2207003357904069 5.2694734195512973 15.51635664659144 126 84 72 1.9681707533698025 7 2927 6 2832 10 3341 12 2404
2179 -7.0549046367582156 5.5086985397375638 15.637225440827876 61 66 69 2.0592959396373165 7 2146 6 2836 10 2585
2180 -5.2093222741167011 5.4488220480383847 15.542976619639136 121 80 74 0.95352526257654913 7 2922 6 2837 10 3370 5 2405
2182 13.474188594897694 5.6487854773298416 14.997045761378654 74 71 61 1.0998457706523019 11 5935 6 2845
2184 10.900086855395166 5.8808197642825766 15.224952689789143 110 63 55 1.7465127941075949 7 2887 10 2796 3 3405 1 2570 2 3007 4 1911
2188 13.094053633512203 1.1028515686276261 16.910513729971758 168 162 140 1.5370247318361832 7 2242 6 2869 12 2839 3 4451 13 2962 1 3324 2 2650
2189 6.760154879946132 3.1979972158858772 16.182845766051802 145 101 89 1.1733095702417276 7 3094 6 2877 10 3223 2 2629
2191 -5.4736835242951196 3.575930232458997 16.460983016940581 130 84 71 1.5549810532365202 11 2711 6 2880 10 3573 5 3019
2193 12.283896114899976 5.4713099408311576 14.760392681835675 69 80 81 1.5187968069983588 6 2896 3 3398
2196 10.734224082610911 5.9855771738367478 14.87448786400844 111 69 59 1.7176987796721412 11 3056 6 2902 12 3446 7 2341 3 3888
2197 9.4224069363937772 6.3245678401231444 14.749437871383488 128 88 78 1.5864675598403635 7 3130 6 2907 10 3159 1 3235 2 3589
2198 6.3668429584334305 6.4426497649111116 14.832589038827095 127 79 65 0.45145206201171595 7 3133 6 2911
2199 -1.5609266182601889 6.6563759050307372 14.927073102298925 115 86 83 1.1773695914072273 11 3043 6 2917 10 3170 12 2728 5 1864
2200 -1.5607321532476206 6.6576191118113375 14.93309339245457 115 86 83 0.96592521474072779 11 3042 6 2918 12 2633 5 1865
2201 1.967227994364755 6.6626850221826812 14.880158270448321 168 161 150 0.60864477541875661 7 2819 6 2921 10 2822
2202 -9.0170524066627973 -4.8839964823585671 19.753247998863056 50 54 57 1.3539468825774068 7 2020 6 2922
2203 -5.2395775777146874 6.7724789308285596 14.966786453123394 107 63 52 2.0305497905987893 7 3145 12 1767
2208 -2.7536316620147643 -1.8915821982684153 18.643956551833444 205 200 181 1.7203820295552552 7 1754 6 2945 10 2010 5 2059
2209 8.3130341137666779 6.6851583485654738 11.915560567056696 13 15 14 2.0580111938920922 6 2947 7 2709
2210 -1.6410181574065537 6.5834276722930802 11.997901378109335 20 21 21 1.8084202424714733 7 3170 6 2949 10 2896
2211 -3.962586481926583 -7.1020673607847913 21.503095649876819 73 72 80 1.4380447419393416 7 2272 11 6224 6 2951 5 2693
2212 -8.6028753273265117 2.7113761841120363 16.382429289842118 19 17 19 1.9242868016704986 6 2953 10 2243 5 2998
2214 13.62703294909082 -9.6025363984108427 20.52009915380604 146 148 147 1.2752605806023489 7 3000 11 7727 6 2963
2215 8.8085619336584067 -9.6602609221352118 21.646614970669994 177 177 167 1.5986450248186375 11 3230 6 2967 3 2383
2217 6.5994220498201184 -9.5184522912726148 21.816343459372099 181 177 168 1.1474602448793643 11 2243 6 2970
2218 -4.7527644213837474 -9.2476142330491502 22.096466375729584 178 179 174 1.5213031559759249 7 1914 6 2971 5 1928
2220 1.4727206790564449 -8.1480049087377502 21.646612187667682 48 50 56 1.5035269921761187 6 2978 5 1829 11 2095
2222 8.8868484817358819 -7.8287928363658894 21.944426964779634 186 214 236 2.190479628247723 7 2700 6 2985 1 2512
2223 -3.962586481926583 -7.1020673607847913 21.503095649876819 73 72 80 1.4380447419393416 7 1967 11 5505 6 2987 5 2558
2224 0.96082900437763785 -6.6953019263111093 21.088971855117087 103 95 100 0.49257868480209893 7 3024 6 2989
2225 4.6228267826419946 -6.785090580451322 21.001683541372088 109 98 106 1.1961731877873212 7 3020 6 2997
2226 0.31742341666184032 -6.6814342205206412 21.117395359954298 106 96 102 0.0088645011665365002 7 3025 6 3000
2228 6.6282783788895152 -5.6888856671206804 20.051778768734415 225 225 223 1.2311162640099997 6 3004 3 4107 10 1528 11 3595
2230 13.524309405318911 -3.7611956377559204 15.736120038967188 67 66 61 2.3402423165613064 6 3008 1 4252 2 2685
2231 13.632824075604299 -2.9925204176149118 17.678832850758262 68 65 60 1.8980438271323226 7 3047 11 5097 3 3748 8 3383 12 3282 9 3356 6 3020 1 3356
2233 9.8277480147119842 -2.4166248718497227 18.591526570851876 209 208 203 1.3829891378221337 7 3053 6 3027 2 1578 1 3362 11 3140 12 2535
2234 9.999166997674001 -2.2876772988560661 18.696535695602215 183 172 161 1.7519495430145708 2 1489 13 1882 6 3031
2235 9.9421639234127372 -2.2716837220775616 18.537740932108075 183 172 161 1.793341454164685 11 3137 6 3032 2 1575
2236 -7.630291097686368 -1.9078990721647031 18.927456496269642 61 60 56 1.4941628451581668 11 3145 6 3033 5 2506 10 3051
2239 12.855541431507676 -0.53318184847404104 17.558254924217966 173 152 134 2.0318411002824979 11 5251 6 3039 12 3755 13 3827
2240 6.4912716908955312 -0.28884780557777812 17.661121472937666 195 191 185 1.4667337750793599 7 3059 6 3040 10 2414 1 3351 2 2672
2241 6.5179649185497075 0.17057182583653274 17.515459828534564 203 203 201 1.9592868250128972 7 3062 6 3045 10 2181 11 3116 3 3238
2244 1.1293765028718354 6.2049918392458308 11.394980175599171 202 213 228 0.048227404396122324 7 2733 6 3074
2245 8.3786149774877376 6.7501404821311777 12.023808036457083 13 15 14 1.2573721938785729 6 3075 2 2746
2246 8.3999139843959334 7.0822733976847339 12.833094563938596 29 33 38 1.8737871079518218 6 3080 2 6493 7 4323
2249 9.4868630816371606 6.5212505359943886 12.154697580404125 55 48 39 1.2344233495589716 7 4303 11 2956 2 6470
2254 -0.63580966112115267 7.2004451242678975 14.595799137759581 149 156 164 1.9872910390708225 11 2951 6 3113 10 2855 12 1627 5 1426
2255 1.9040513060089292 7.1651443060362139 14.628470583159743 93 98 104 0.16891404060551746 11 4843 6 3117
2256 -3.5978333729672984 7.3125952732946029 14.995989314804996 27 25 26 1.4289943329138648 11 2592 6 3118 7 2220 12 1615 10 2837
2257 -1.8196725488656555 7.1931564827359491 14.794725494416411 33 33 35 2.073171381820905 7 2782 6 3123 10 4637 12 1619 5 2211 11 2591
2258 3.3157694801933952 6.5727797764093197 13.707938485731201 88 72 70 0.0023273063414568857 7 2789 6 3130
2259 5.9498575894710228 7.0261499881465204 14.758821741779606 133 86 70 2.143310342239535 6 3138 2 2387 10 2875
2260 5.527096451533458 7.0642793754622017 14.858083164636088 30 29 30 1.6719193485108184 11 2921 6 3139 7 4251 12 2680 3 1503 2 2385
2261 8.4828982039681922 6.2061561860186885 13.10062204775782 9 10 12 1.4619536035429743 7 2796 6 3142 2 3116
2264 7.0887387333702456 6.6901628664487296 14.641443631805018 127 71 56 1.0652075895362674 7 2808 6 3155 3 2935 11 2897 10 2863
2265 1.967227994364755 6.6626850221826812 14.880158270448321 168 161 150 0.60864477541875661 7 3143 6 3159 10 3165
2266 -3.64590815199039 6.8367871392035511 15.240830267597334 24 22 21 1.4856723656224855 11 2905 6 3161 10 2783 12 1258
2267 2.3445945854646042 6.069878136292143 13.57913888822428 175 171 166 2.0622398088586111 7 2818 10 4618
2268 -1.5609266182601889 6.6563759050307372 14.927073102298925 115 86 83 1.1773695914072273 11 2904 6 3165 10 2789 12 2634 5 2229
2270 6.3668429584334305 6.4426497649111116 14.832589038827095 127 79 65 0.45145206201171595 7 2836 6 3177
2271 9.4224069363937772 6.3245678401231444 14.749437871383488 128 88 78 1.5864675598403635 7 2845 6 3183 10 2841 1 3127 2 3047
2272 9.7154144647808405 6.3247328146593293 14.774651506731871 120 78 70 1.4026337396592032 7 2844 6 3185 10 2845 2 3048
2273 3.1715374790785029 6.2407758130924336 15.026692049790915 132 79 67 1.2453725842291954 7 2850 6 3187 10 2785 12 2741
2276 -8.4834920722917957 -6.6593747338313047 20.415224852289374 135 142 152 1.6346537266792991 7 2714 6 3197
2277 -0.35692938715673578 -6.1499652864815957 20.544954558252375 90 85 82 0.84902819855502032 7 2940 6 3199
2278 11.552323675066297 -2.3463670279225988 18.468626638222638 91 83 65 1.9144023832585384 7 3282 11 3748 6 3201 10 2032 12 2117 1 2683 2 2037 13 2835 4 2081
2280 -6.8957094035896498 3.8445421176872134 16.061913854763869 121 75 62 1.1636486755180053 7 3921 6 3210 10 4205
2281 7.7390387426464731 4.285620028838717 15.731026531078898 141 102 94 1.3673570300558646 7 3984 6 3212 2 2257
2284 12.726684202192143 5.1452793488482946 15.378021233295947 17 16 14 2.045609972027024 7 4086 1 3797 6 3220 2 5561
2285 -0.35692938715673578 -6.1499652864815957 20.544954558252375 90 85 82 0.84902819855502032 7 3029 6 3224
2286 3.5063808614463938 -3.9756337223812843 19.513987379927237 42 41 47 0.49162835191838505 6 3231 10 2136 7 3044 5 2127
2287 9.0912047484228768 -2.4181990170446332 18.595852251349129 60 56 48 1.8822714738860165 6 3232 7 4525 12 2534 1 3365 2 2690 11 5762 10 3040
2289 1.0195512376437093 3.371351334481274 16.245370481547141 148 96 82 0.47549474714537687 7 3098 6 3239
2290 -0.19599552667615833 5.5206291894735848 15.38520217630121 128 76 62 1.2496930421697219 7 3118 6 3241 5 2413
2291 -1.4885295093004489 -4.43050212247209 19.701862071970954 206 203 192 1.5869539558537979 7 3844 6 3245 10 2401
2292 -7.5966141153992819 -6.9634886753997352 21.488916756999345 61 60 65 1.1709993232534444 7 2718 6 3246 5 3649
2293 -0.20384530747575186 5.5384576598944566 15.434481015800447 128 76 62 1.7143795193275957 7 2911 6 3250 12 2407 5 2404
2294 13.692598409830127 -1.4709021019776272 16.635530529924889 154 112 94 2.2845952243015004 11 3784 6 3255 12 2165 3 2647 8 2693
2295 1.0195512376437093 3.371351334481274 16.245370481547141 148 96 82 0.47549474714537687 7 2525 6 3259
2296 1.3180968906331889 -5.2462223889131652 20.130456073460948 184 137 120 1.7018042226686123 7 3449 5 1950 10 1909
2297 3.5063808614463938 -3.9756337223812843 19.513987379927237 42 41 47 0.49162835191838505 6 3263 10 1943 7 3043 5 1963
2301 10.541324653147104 5.796120651099268 15.008080033403308 113 66 56 2.0286472096992214 7 2888 11 4736 6 3276 10 2794 2 3001 1 2589 4 1909
2302 -4.7304508216580832 6.2495031662257379 15.229602944979952 115 67 57 1.6508524903226676 7 2862 6 3278 10 4547 12 1875 5 3125
2306 10.669384936645274 -3.9302224283644596 19.235437065925424 149 149 141 1.6011608263961912 6 3288 1 4900 2 1973 11 5095 12 3614
2307 6.0259086062508302 3.5229155558073888 16.058299809894098 141 91 80 0.65102327059649656 11 4556 6 3289 2 2220
2309 -0.23196485727663652 -8.0478192497940206 21.939520821029994 195 224 241 1.5789334477904047 7 3508 6 3292 5 2649
2310 13.519513193175616 -6.7396274084988539 17.341810656123947 197 197 195 2.2017640079104592 7 4949 6 3297 1 6549
2312 -8.4281485015772901 -7.6118670961677486 21.248885533684728 125 122 115 1.5736698497221937 7 3522 6 3299 5 3662
2314 6.924398498819448 -7.6423293763095668 21.006257236659177 224 224 221 0.39222166553011351 7 3518 6 3303
2315 8.8802702595037157 -7.6057975374728537 20.803466432769252 182 181 173 1.7497575510387633 7 2685 11 5066 3 5147 6 3304
2317 13.552804397772611 -7.4068843901143913 19.684565981869 79 78 73 1.3528427072602216 3 5333 1 4812 8 3690 9 3699
2318 5.2621340783940784 -7.5133829322117451 20.96003751500184 237 233 224 0.89416699698752478 7 5260 6 3307
2319 9.0636865558253721 -7.5810222562138918 20.84758035956181 200 182 172 1.0944201180055058 7 3519 11 5040 6 3309
2323 13.358491840311215 -6.0948541881140317 17.738557492978909 156 108 94 1.5200943958875046 13 5961 12 3561 8 5137
2324 13.463381893253736 -6.9723425308055011 20.632650892425271 89 83 69 1.4744789084325498 7 3546 6 3322 1 4839 8 2105
2326 0.3220688540989125 -6.461655889079176 21.05157508987649 187 197 207 0.21729189793573211 7 3572 6 3333
2330 10.761008679519675 -6.4177224349113562 20.259733284443094 77 76 72 0.94758194055856804 7 3563 11 5625 6 3344
2334 -4.0689331452882787 -6.026209186189873 20.637871643105623 80 78 72 0.56261307293128926 11 5158 6 3354 5 3433 7 3610
2336 -5.6798769850287441 -5.9509575449981718 20.613062818884345 78 74 67 0.97937856618618147 7 3619 11 4185 6 3358 5 2740
2337 -3.1654677672645586 -5.9082117783903714 20.540116177753834 181 180 172 0.71547659799050844 11 5033 6 3362 5 2717
2340 10.207335098015648 -6.0250949947886516 20.286966592703845 177 166 151 1.7577731814564164 7 4596 6 3368 1 4221
2341 12.702520169988938 -6.0090882874025242 19.972923241239293 183 171 155 1.9011270067938713 1 4230 13 4225 12 3312
2342 7.049072210134411 -5.8012604749862113 20.081031318157926 162 149 136 1.8551832914873974 11 4966 6 3370 3 4111
2344 -1.6220818141936448 7.0940666824192222 12.90200189027205 16 17 19 1.3306708568667831 6 3372 10 4693 5 3254
2348 12.314327224263129 -5.561490129263281 20.003755798280103 146 95 83 1.0913634771057337 7 3644 6 3383 1 4870
2349 12.42643866279434 -5.4889270398760113 19.88653996689898 145 93 79 1.3384565963464272 1 4871 7 3448 6 3384 11 5006
2350 -6.2777402349723257 -5.2008535958471525 20.464413002441496 194 186 177 1.2021349700774575 7 3669 6 3386 10 2721
2351 6.9041186092076483 -5.2121472327704028 19.961376860895246 168 124 111 1.5358579818355511 6 3389 1 2549 11 6568 10 2684
2353 9.1236705419210349 -5.2783685406051397 20.012810279616069 163 125 112 1.0120293878370095 7 3659 6 3392 1 4821 10 2679
2355 -7.2989164065260299 -4.950816127879996 20.242562492346561 140 96 83 0.31786284593322756 7 3687 6 3396
2356 -3.9559464292569189 -4.9361223223309922 20.113409849309861 155 120 109 1.6391808743223604 7 3682 6 3397 10 2706 5 2755
2357 0.047641276276445252 -4.9203454613240574 19.982052914588913 177 138 123 1.9672880437365898 7 3678 6 3398 5 2712 10 2692
2359 1.6513730830336872 -4.882996349950214 19.891575541528933 167 134 124 1.0841570879145361 7 4036 10 2685 5 2695
2360 -3.4126416309869301 -4.8638767232974081 20.060414604744519 200 154 132 2.1376880881875309 7 3689 6 3402 5 2753 10 2701
2361 8.9298233066893999 -4.9501171419163104 19.907966885450694 66 44 39 0.96612984132553792 7 3683 1 4835 10 2658 6 3406
2362 6.7716831049405828 -4.7704098415258942 19.658061574754647 232 227 215 1.5488527544486757 11 5013 6 3410 1 2560 10 2400
2363 -7.0799129778520928 -4.6519426714527699 20.245957378751719 60 42 40 1.4890593802251459 11 4955 6 3412 5 3471
2364 10.330445981757789 -4.7076821137037435 19.540578390349722 211 212 209 1.5239333269223772 7 3695 11 5032 6 3413 1 4869 12 3590
2365 11.496966678945046 -4.8798500761195758 20.038740884704382 115 119 116 1.6505206529389205 11 7918 13 13273
2366 1.1471815849773235 -4.5537739462413631 20.081191735262937 159 188 209 1.5055344009789708 11 3625 6 3417 10 1925
2369 13.521345841902159 -4.5554241996528733 19.514837806110783 173 169 160 2.0069105222377552 11 5053 6 3427 9 3765
2371 14.071037179893983 -4.2518398207346921 18.073316923459938 132 146 154 2.2228084257681813 2 3875 8 2022 4 6955
2372 -8.8232587600443981 -4.0279770242498101 19.245940696278502 100 122 133 0.36420760879720959 7 5619 6 3430
2373 10.671789033645823 -4.3415542874558497 19.417080261066847 118 111 104 2.5762206047281846 11 5695 6 3432 1 4882 2 3827
2374 13.356194384771632 -4.4639593213000284 19.596588127502063 159 156 151 2.1652488215196781 7 3979 6 3433 2 3863 8 3745 4 3741
2376 2.7439783192811453 -4.0973194888200259 19.474596790472816 231 225 203 0.33442808190654155 7 3454 11 3644 6 3438
2377 3.9043411228239746 -4.1906270679580704 19.862338660777233 181 210 228 0.80019557432225552 7 4233 6 3439 3 2407 11 3645
2379 -2.7870058592640832 -4.0583801125607222 20.102717059120064 168 199 213 1.4372086081924609 11 2178 6 3444 5 1692
2380 5.9606764249369393 -4.0118277921758443 19.32102655188103 223 221 209 1.685724813575993 1 1737 6 3446 7 4332 10 1948
2381 -3.8981396884030142 -4.0911724156658025 20.532888876915621 162 188 208 0.092583515845776565 7 4529 6 3448
2382 -7.6425427256031115 -3.9044771527189597 19.774727539724722 186 185 174 0.36340545896612819 7 4615 6 3449
2384 -7.5295483528300728 -3.8854660298621271 20.393691987895657 111 119 122 1.3108040324790464 7 3242 6 3464 5 3857
2387 2.0359054975360951 -3.3686104202053664 19.15811804537206 209 201 187 0.5573533437264504 7 3680 6 3478
2389 12.602012567892944 -3.4958999384479323 19.349799615061968 61 59 62 2.0713107491458902 7 4409 11 4140 12 3650 1 5816 4 3761 2 4821 6 3485
2391 10.683521295292804 -3.3367194675093406 18.977481966575802 211 207 203 1.3628120787469036 11 4139 10 2567 1 4934 6 3489 7 3565
2392 5.3174534874169757 -3.2895750099314331 19.514346437636213 84 74 79 2.2426987930994562 7 4797 6 3490 12 1519 11 2627 10 2582
2394 1.9358919137457544 -3.0490234136067738 19.065782818469419 192 179 163 1.0533195494561476 11 4114 6 3492 10 2584 3 1955
2395 13.482144354907385 -3.1786379374894942 18.844759937718237 185 182 175 1.7395634604222185 7 3407 11 6116 6 3497 1 5009 2 4935
2396 2.7706964152379472 -2.9527630980841009 18.986752716250873 213 212 205 1.4786661149747606 7 3975 6 3499 10 2573 3 3280 5 2437
2397 2.0357342331991877 -2.9337018219342772 19.051024973048229 219 219 212 1.9680954177067487 11 3691 6 3500 10 2576 12 2016
2398 -0.29862346614667185 -2.8770660553047662 19.017848860415118 181 177 166 0.77631791163625807 7 3266 6 3502 10 2580
2399 3.0871100671477252 -2.9201432523978705 18.878442994239421 224 224 220 1.6269470134719608 11 4132 6 3503 10 2572 7 3264
2401 10.682158454775324 -2.7653019144300157 18.70316397905064 173 170 167 0.84238843397859098 11 4167 6 3512 10 2532 1 4967
2402 1.0553406627259336 -2.566190302706973 19.185449485405403 104 94 99 0.18916201776721817 7 3765 6 3515
2403 -0.30106736629573161 -2.4902362681259445 18.852456768757612 220 221 216 1.5406004669058992 7 3273 6 3516 10 1983
2404 0.37776270946679952 -2.5505327837107403 19.229885648229722 109 98 102 0.11291275126240646 7 4528 6 3517
2407 6.3960266541701909 -2.3459232428057746 18.398058504692873 198 190 171 0.8151130150031678 6 3529 10 4797 2 1967
2409 11.275914545827227 -2.3533389339008641 18.520521112783516 193 195 183 1.3724416841192686 7 4956 11 4177 6 3534 10 2519 12 3677 1 5017 2 3908 13 4310
2410 12.462571671883715 -2.3657213870449127 18.515859342569055 194 187 172 2.1895861073560909 7 4958 11 4179 1 5051 10 2517 2 3927 6 3535 4 3795
2411 12.795897579887926 -2.3761926387186589 18.646878616131151 178 174 157 1.0607884015024189 7 3284 6 3536 2 3933 4 2140
2412 2.353427300978546 -2.1695437270123596 18.588360680900298 217 218 216 0.23549688615533715 7 4965 6 3538
2413 6.0019255165344578 -2.1623256278614118 18.511840267586869 226 225 217 1.2962127047056073 7 4966 6 3542 1 2629 10 2524
2414 -3.9778506201175641 -2.0253958292354426 18.840561005988352 57 57 55 1.1026580023904125 11 3142 6 3543 10 3050
2415 6.7456765712749904 -2.1316143520099415 18.486856137077332 128 126 114 1.9815210150208482 7 4968 6 3544 10 2523 1 2641 2 1986
2417 -5.2841504109490609 -1.9595220084786671 18.913389783372381 204 204 198 0.19397738668204675 11 3713 6 3548
2419 13.743128737912533 -1.853898728479197 16.079065141408361 158 104 78 1.1439317489095899 7 4151 1 6005 2 5039
2420 4.8536387809082235 -1.9427555163300272 18.479298311100294 209 210 196 2.6091557710608693 7 4979 6 3553 12 3629 3 4171 10 2521
2422 10.09168665237593 -1.8169784341315489 18.28418673307873 203 204 200 0.57341073833819634 11 3761 12 2126 10 2041
2423 0.3040441973203486 -1.6743630520709865 18.463191541331607 218 217 211 0.98628410277330592 7 4990 6 3563 10 2522
2425 -1.5825441708806631 -1.5169344504060995 18.606809415774954 143 142 137 0.68914818471506134 11 4173 12 2033 5 2844
2426 11.727356440993535 -1.6798247064575562 18.190183911961313 176 156 143 1.6816022329498508 7 4992 11 4199 6 3569 10 2480 12 3701 1 5109 2 3956 13 4391 3 5644 4 2149
2427 13.470793553125763 -1.6370139539102806 18.039217036604551 173 170 165 1.2602249542283797 11 4213 6 3570 12 3719
2428 9.8367964719727503 -1.5691047999093868 18.206884178702524 124 121 115 1.6093495295802587 10 2420 3 4272 1 2691 6 3573 12 3688 11 4197 2 2754 7 4996
2429 0.30930191572786314 -1.4010728739451312 18.380570007255198 212 209 200 0.91820306897248138 7 4999 6 3574 10 2514 5 2053
2430 6.0358945602076775 -1.4568869614515987 18.302162641598354 155 153 139 0.68504368939774596 7 4997 6 3575 12 3663
2431 -0.8606265886124489 -1.2654954559991374 18.40525339578382 149 147 142 0.89640049925506948 7 5008 6 3578 10 2510
2432 13.755318214004944 -1.3525991455135882 17.184793732312745 146 85 66 1.9190765504203913 7 5003 6 3579 1 6085 12 7239 2 5097 3 10324
2433 13.702079055952245 -1.2929974819405872 16.779799196723999 146 93 75 1.7713547556037952 7 5495 12 4697 3 5749 11 5791 2 9822 6 3580
2434 -4.4909244369156873 -1.0713667436213452 18.33282801436193 201 202 197 1.3671695886698327 7 4483 10 2511 5 2883
2435 -8.293665892277275 -1.0027102364991214 18.341071246340938 178 175 168 0.72396702989078676 7 5018 6 3585 10 2515
2436 3.1116067625984374 -1.0803569474251165 18.127371379778545 205 201 189 1.2662279142229713 11 5083 6 3586 10 2489
2437 13.325900922163022 -1.2126976747412757 17.982696552799716 182 179 172 1.0728548216135523 7 5013 6 3587 2 5103 1 4591
2438 1.5105000359446503 -0.98178501623535197 18.159958297126657 182 180 171 0.95069320386254341 7 5019 6 3588 10 2483
2439 10.681740643958429 -1.0915713161185048 18.034135486470035 214 208 196 1.519307785116992 7 5015 1 5147 2 3974 13 2857 6 3589 10 2458
2440 0.024432228601863296 -0.94885763367998122 18.137232348672978 219 217 205 0.71480581637773433 11 4195 6 3591 5 2852
2441 12.723563065818594 -1.0801028614996324 17.910443391391599 138 89 75 1.5045401011307236 7 5016 11 4232 10 2440 12 3734 3 5705 2 4028 6 3593
2442 10.272393946252709 -0.99924288846674802 18.078427628921684 171 167 166 2.1579920306076907 10 2453 2 3973 13 4382 1 5143 6 3594 7 5020
2444 -7.075271039717042 -0.74967133954779097 18.340955921835345 95 91 79 1.001391695376306 7 5027 6 3597 10 2505
2445 7.9449583149875087 -0.86843375047043248 17.906964232334325 154 124 118 0.67651926720004951 11 4229 6 3599 10 2455
2446 7.5224136442761846 -0.76901868917359539 17.893339939555098 158 121 114 1.6771270646008896 11 4450 6 3603 12 3698 1 2694 10 2449 2 2046
2447 -5.5047180306717793 -0.63497857667198043 18.212289125447342 194 190 178 1.9403380520480262 7 5032 5 2904 6 3604
2448 3.8074576320922717 -0.65709332038647117 17.96454389954361 164 135 131 1.8723941288501493 7 4188 6 3607 10 3889 12 3669 5 2825 3 4191
2449 9.3306000743291975 -0.63506669240119518 17.812512152755847 183 165 145 1.8192668758513437 6 3611 2 3977 7 5033 10 3737 1 5155 3 5648 11 4462 12 3521
2451 1.7473695361159127 -0.5390528549481568 17.910922656096201 163 115 101 1.3581272821687034 7 5035 11 4228 6 3613 5 2853
2452 -0.05249936079448235 -0.47381606769629975 17.93986964945708 172 126 110 1.7590270054952559 7 5037 6 3616 12 2082 5 2867
2453 -7.6697477750049181 -0.38102454512253497 18.286117130212961 128 84 73 1.4150002120238452 11 3769 6 3618 10 2474 5 2920
2455 3.1299131369409401 -0.33418780418515914 17.790946925103917 209 201 192 1.8587369773974063 7 5046 6 3624 10 3750
2456 2.8217093017638954 -0.31730636299280601 17.868643129308708 206 206 196 2.2102769518384129 7 5047 5 2140 6 3625 10 3751
2457 10.539425402599154 -0.30351833210456869 17.808655925919165 157 158 142 2.0305928622012863 6 3631 10 3927 1 6113 13 4422 11 5829
2458 2.3924502687013782 -0.18786997144902973 17.836226717404728 200 198 188 1.6350328976473929 7 5054 6 3634 10 3738 12 2116 5 2273
2459 10.387180118056744 -0.20228654575364746 17.504444377016501 118 109 92 1.5568600764810461 11 5250 6 3640 10 3011 4 2264
2460 12.693441424689755 -0.0049714499255051788 17.796824433369174 57 56 61 1.398183294366969 7 3516 6 3647 10 3692 1 6297 2 5221
2461 10.02931926220325 0.28628853549369121 17.392869376843006 178 165 156 0.8913074072400301 10 3684 1 2751 3 5758 6 3658 11 4282 12 3771
2462 -7.412058861111416 0.54027964668580142 18.1272838061901 46 41 45 1.5171402133065675 7 3371 6 3661 10 3731 5 3977
2463 6.0753763503054516 0.50350574195459619 17.252980367336374 139 132 117 1.1882538833924381 7 3662 6 3669 1 2721 2 2075
2464 9.1159810713150584 0.48836618581273955 17.279121724715132 118 111 93 0.42210370674155467 11 4287 6 3671 12 3772
2465 12.722661008505334 0.53509280833860629 17.415748868002542 115 113 108 0.97253853267900681 7 3686 11 4297 6 3674 12 3801 3 4422 13 2946
2467 13.225394395501326 0.92276016825921237 19.956951831186551 91 96 98 1.376043969101723 7 4463 6 3680
2468 -8.6398072865281659 0.97281733671395387 16.890067721859005 89 110 121 1.2965964987450758 7 3714 6 3681 10 3933
2470 -5.6300264982910546 1.280253565183832 17.47154914579086 24 24 25 1.4766750474561192 11 4292 6 3695 5 1784
2475 -7.3316321336402508 1.7249030134605925 17.692691815484523 73 82 81 1.1725022744862263 7 3747 6 3710 10 3960
2478 -7.5639003191665042 2.237560873604457 17.063722647317348 142 133 108 1.6751506882401486 7 4453 11 4335 6 3730
2479 9.0853565185523149 2.2138206315656865 16.85809203536127 58 56 58 0.8324463832230462 11 4358 6 3735 12 3831
2480 11.270752312404049 2.2439557681526003 16.998075660283838 143 151 158 1.0883675956690575 7 4452 6 3736 10 3267 1 3568 2 4266
2481 12.746742051098646 2.288145549993851 16.819756363339586 16 15 14 1.479434513418757 7 3762 11 3310 6 3738 10 3578 13 4611 1 6683 2 4680
2482 9.1742975952631145 2.3793776701474667 17.239656198445989 120 136 143 2.0928051099431104 7 7191 6 3739 10 5046
2483 13.815556409963529 1.9896037961026787 13.815672335766505 149 97 79 0.83658638018686116 7 3766 3 6560 11 4372
2484 13.610002831017317 2.0678751385229996 13.847117918594265 123 80 71 1.3211912199652633 3 6559 9 5194 8 4539
2487 5.4279088482000768 2.4925344221017403 16.843708598700104 50 48 49 2.5716311541143613 11 2697 6 3747 10 3597 2 2141 7 5677
2490 13.708583629907883 2.5504930660687766 14.943158026654052 130 74 59 0.77003126608637507 6 3760 1 6773
2491 13.932689390613879 2.700844486400547 15.463360849316841 120 76 65 1.2918128391120296 6 3762 3 6576 13 4020
2492 6.9552252409990016 2.8720343861206845 16.222494465587371 125 88 79 2.1460447035993746 7 3790 6 3763 10 4200 1 3573 2 4253
2494 13.012206431079996 3.0188684791313083 16.131633065745405 118 73 61 2.0983749843308086 7 3799 6 3771 12 4394 1 3653 2 5322 10 3208 11 5111 13 4731
2495 13.168801777319864 3.0210002432667875 16.148360030754642 130 73 59 1.6761112744042144 7 3800 1 3654 2 4385 10 3465 13 4738
2496 12.707191748246936 3.0194906473380376 16.100581297668132 122 84 75 1.5192684479196206 7 3803 6 3773 1 3650
2498 12.251469610404737 3.0321313673050465 16.102325318252646 123 75 60 1.632055425411761 7 3809 1 3644 6 3775 3 6552 12 4384 10 2443
2499 12.402749026111572 3.0176988571276437 16.08964114746901 117 80 71 0.93155830764084124 7 3806 11 6012 6 3776 2 5316 10 4248
2500 -5.4412676974890894 3.1519041137260606 16.581437370910756 78 58 53 1.5608997391858468 7 3810 6 3780 10 3598 5 3001
2502 10.380434946526901 3.0805928244640883 16.122361481877622 125 87 74 1.4248130940438806 11 5234 6 3782 10 2469 12 4369 2 4353 3 6530
2503 -6.0119500421118328 3.189710010611011 16.644556583610438 112 78 69 0.63840821257030766 7 3813 6 3783 10 3599
2504 -0.82580798098522656 3.1250575684796491 16.457383606215455 135 94 86 1.104250139462879 7 3814 6 3784 5 2981
2505 9.9275079664520085 3.0846347913615597 16.10051005233754 135 74 59 1.9873244406951289 7 3822 11 5224 6 3785 10 3493 12 2874 2 4346 1 3551 4 2428
2506 10.090191410029934 3.0889290575838535 16.118704742677391 135 80 61 1.8186713770582439 7 3815 11 5229 6 3786 10 3491 12 2875 2 4347 1 2884 4 2432
2507 -1.4402379320847529 3.1334297750150522 16.467545373939551 103 72 66 1.6255316118935845 7 3818 6 3788 12 2218 5 2984 10 3586
2508 9.8228835143616564 3.1082138242902437 16.1752338070552 142 86 73 1.2982090742635515 7 3819 6 3789 2 4343
2510 8.9463152928746528 3.1384192143515097 16.192592428785616 148 87 69 0.97483777328772891 7 3828 11 4508 6 3793 3 4533 2 4328 1 2876
2511 9.1111393175335227 3.1324743719318788 16.182269184255979 143 93 82 0.86315951422260873 7 3825 11 4509 6 3794 1 2878 2 4332
2512 8.7823136929772794 3.1312834222989112 16.150025834911609 142 94 84 1.4883462374602918 7 3827 11 4507 6 3795 12 2862
2513 8.3536499836228302 3.1560620624945468 16.179894130050599 142 92 81 1.2840179786713521 7 3474 11 4506 6 3797 3 3796 1 2874 2 4317 12 3370
2514 7.4812406525850337 3.1797895758048855 16.178478887170829 141 93 79 1.2239606461559218 7 3830 6 3798 3 4517 2 4302 12 3868
2515 5.618954345451078 3.2385457234018808 16.235013370127852 138 90 79 1.3292342918554416 7 3834 6 3799 3 2721 2 4264
2516 5.78161553143413 3.2315313765272822 16.208532056311359 118 79 67 1.7645399506157151 7 3835 6 3800 10 4226
2517 5.1173153234010398 3.2562068086292673 16.203612947178026 136 95 80 2.0700433277070793 7 3839 6 3801 3 2713 2 2186
2518 5.2551721469171699 3.2543329124320257 16.201325201366121 147 94 78 1.9637924564790525 7 3392 6 3802 3 2716 2 2188
2520 12.122745047152865 3.3155261849471245 15.966101010112075 115 75 67 0.62814441466529891 7 3843 6 3810 2 3746
2521 1.9287529544498045 3.342699837332106 16.209329554961187 148 104 91 0.39611132924790926 7 3851 6 3816
2522 10.874443585920138 3.3846523752021063 16.08932331834983 129 80 66 1.7484266367347794 10 3439 1 3663 7 3858 11 4547 4 4358 6 3818 2 4384
2523 11.014366197650082 3.3687750451209646 16.032172161351774 132 90 79 1.3383064346118738 7 3853 11 4548 6 3819 10 3436 2 4388 1 3664
2525 0.5536809556832496 3.3819847068476045 16.304069428742689 153 90 73 2.0375586901096168 7 3855 12 2260 5 2350 6 3823
2526 0.70880758978157876 3.3784833350962362 16.304479507098293 145 95 84 2.0904924671814298 7 3856 12 2262 5 2351 6 3824
2527 9.859561325633825 3.4048219500302976 16.080253707018535 135 78 61 1.2236251436133054 7 3862 11 4549 6 3826 10 3449 2 4374 1 2904
2528 9.5401448900973485 3.4111016620963319 16.048296263216901 132 84 70 1.5901544941822192 7 3475 11 4550 6 3827 10 3451 12 2893 2 4369 1 2902
2529 -0.91098537062514018 3.418587815577796 16.299127059809809 149 91 77 1.7872534163821505 11 4536 6 3829 12 2248 5 2341
2530 -0.76584738148901188 3.4178873618026087 16.319192339732602 144 95 81 1.3366519165900825 7 3861 6 3830 10 2603 12 2249 5 2991
2531 -1.6587127428045942 3.4508497044815809 16.331698612356682 143 85 72 1.3894352960837457 7 3864 6 3831 5 2997
2532 -1.5029958652462871 3.4434555141758243 16.321445968041495 149 96 80 1.0066382237494496 7 3865 6 3832 12 2239 5 2336
2533 -1.3658066134439761 3.4366673854759231 16.324780221686886 146 88 74 1.0245989898903121 7 3859 6 3833 12 2242 5 2996
2534 -2.2272477086346951 3.4644633027826881 16.345641932520198 132 86 73 1.7443942598331093 7 3866 6 3834 10 4196 5 3002
2535 8.8248406522691987 3.4423761601064906 16.089124127577737 131 85 70 0.85698129918580335 7 3867 11 4552 6 3835 10 3455 2 4357 1 2895
2536 8.9660604046982026 3.4377100002180216 16.091186264951439 149 91 72 0.78355364323105814 7 3868 11 4553 6 3836 10 3454 2 4360 1 2897
2537 8.2211291226100265 3.4383337302061743 16.008478363017975 143 95 85 0.85949379882870758 11 4555 6 3837 12 2883
2538 -4.4601800325787311 3.5522441351079821 16.516708350053964 133 86 73 0.6790208410925177 7 3869 6 3838 10 4194
2539 8.0454066768936716 3.4572696122670874 16.037775730951854 141 93 81 1.4286274027979526 11 4554 6 3839 10 3459 3 3333 1 2890 2 2237 12 2880
2540 13.197852760837243 3.4797102990570954 15.785428492096129 118 72 61 1.3597046566618705 7 3874 6 3841 10 3395 1 3703 2 2833
2541 -7.0426790056819595 3.5585239182102195 16.202662522065872 120 76 66 1.2396199919618767 7 3875 6 3842 10 4181
2542 -6.9226963136807234 3.5636139655740067 16.25059701959734 115 71 62 1.0461398179290093 7 3876 6 3843 10 4182
2543 -6.7906324404945666 3.5659758875459753 16.271455250216789 118 78 68 0.98544619350877471 7 3877 6 3846 10 4183
2544 -6.6898540787458955 3.5843187437818989 16.340584021996062 122 79 70 1.6537767111477848 7 3878 6 3847 5 3153
2545 12.538751983723937 3.5113634962440257 15.865407876904413 113 75 65 0.6463039406278569 7 3880 10 4286 2 5383 6 3848
2546 13.099420346289126 3.5082795383606888 15.877837441320585 123 79 70 1.426331474872147 7 3476 11 4575 1 3701 2 4435 10 3396
2547 -7.5400278684645592 3.5470303053070702 16.049865616258064 103 74 70 1.9415673243060301 7 3879 6 3851 10 4179
2548 6.3367938390244873 3.508497720823748 16.071843470825812 149 97 80 1.6231804093249333 7 3886 6 3855 10 2439 12 2869 2 4316
2550 13.87418174015211 3.4666872337199615 15.017795360992192 102 65 56 2.1033704695334334 7 3889 10 3547 12 4477 3 6655 1 4627 13 3261 2 5423 11 4585
2551 9.5474110736187328 3.609543921485161 15.91459415982032 145 91 74 1.5606704306355168 7 2535 11 4576 10 3418 6 3862 12 2909 2 4391 1 2910
2553 9.2178320261169322 3.6203908310458437 15.91216875219467 124 82 70 1.117679118659122 6 3864 10 3422 12 2906 7 3891 2 4386
2555 1.9064689054900446 3.6579086644347547 16.130461234019275 144 94 83 0.47909250302996542 11 2724 6 3867
2556 8.6397008418202184 3.6533572001651771 15.963356456643185 133 83 69 1.4994493772283595 7 3894 11 4578 6 3868 12 2903 2 4378
2557 1.1770925637329726 3.6747881208435973 16.151056369241378 149 90 74 0.34256456524416673 7 2538 11 4776 6 3869
2558 8.49826728941723 3.6475454064748427 15.933604169978691 112 75 66 1.4099898032863629 11 4577 6 3870 10 3427 12 2901 3 2776 2 4376
2561 1.0293312513263018 3.6793898412823043 16.144366122076011 142 93 79 0.27009590750060658 7 2537 11 4573 6 3873
2564 7.335215797936689 3.6833942741371772 15.946926590070495 114 84 78 1.7650249473876991 7 3903 6 3877 10 3434 12 2895 1 2901 2 2804
2565 13.865121242196702 3.6540144598491442 15.420117645406743 95 65 59 1.5437310188918738 7 3900 10 3542 12 4003 3 6659 1 3716 2 5435 11 4593
2566 -1.917453499524103 3.746759965275924 16.187012804728635 139 87 73 1.6862332233162962 7 3901 6 3881 10 3521 12 2261
2567 6.5887957400437864 3.7260624370998752 16.024556887989139 134 87 77 1.7441121399350579 7 3906 6 3882 3 2756 2 4351
2568 14.095234620455756 3.8253544485046391 15.957420706995201 72 46 40 1.3318300653595061 7 3908 10 4378 3 6658 4 5318
2570 -5.8401115920051243 3.9169134051504089 16.526910631000916 129 80 66 3.2476772615528358 7 3912 12 1441 10 4209 6 3890
2571 -5.5970782822772644 3.8698395671976518 16.343879649115379 132 82 68 0.63191166423752398 7 3913 11 4566 6 3891 10 4210
2572 -5.3261904048955442 3.8755134052719904 16.369883489179628 132 83 71 2.0784418684025239 7 3909 6 3893 10 4214 11 3314 12 1445
2576 13.895842236720123 3.6785400319972803 14.954678540470093 114 82 80 2.2292789020586521 11 5996 10 4452 12 4501 2 7109 7 5715
2578 11.048819222333574 3.8790295035341331 15.841154735823087 120 76 67 1.4640029732199122 7 3943 6 3907 10 4299 3 6626 1 3710 2 2839
2579 2.0590392858873501 3.8427726355860159 16.022601921516731 118 89 81 2.0307104432634637 7 3941 6 3909 3 2263
2581 8.4876562493597412 3.9055821907374546 15.896206258424023 111 74 64 1.1214082453483012 7 3951 6 3912 2 4403
2582 10.002535663363917 3.89731587300827 15.778546064293835 134 77 58 1.6579238204756681 7 3948 6 3913 10 3585 2 4431 4 4410
2583 -0.7105633690764882 3.9739661247659992 16.215418740935537 0 0 0 0.28480965609790004 7 3950 11 4599
2584 -0.73622612195335724 3.9406223959699167 16.160397784567873 137 89 76 1.4737333586568406 7 3944 6 3919 12 2291 5 3016
2585 9.0283844674248961 3.940940066562741 15.819038215979578 130 76 60 1.474915251422807 11 4603 6 3921 10 3383 12 2922 3 4611 2 4419 1 2920
2586 -2.9345758845710805 3.9930706025818199 16.148069444820962 123 87 76 1.8957514367417012 7 3956 6 3923 12 2269 5 3033 10 3498
2587 -6.1629748348785727 4.0960853272813926 16.241503090087139 110 74 65 1.272160810739227 7 3963 6 3925 10 3516 11 2740
2589 -5.8751540087488392 4.1324800636685337 16.371278656359681 107 73 64 3.282245378559252 7 3964 12 2241 10 4231 6 3928
2590 -5.3568141929347561 4.0672561182855018 16.183591128961432 118 72 62 0.46121668118107834 7 3387 6 3929
2591 13.171608258129519 4.0133262450215224 15.31079614214541 115 63 52 0.58926159469238859 7 3366 6 3930 10 3462
2592 13.091316919179169 4.0459350825007379 15.407564044982193 121 68 54 1.5248933128353099 7 3966 6 3932 10 3368 2 2899
2593 2.2222915138451049 4.1301139668933287 15.844325211381394 124 88 78 0.3419765740033448 7 3970 6 3933
2595 9.7560112895369588 4.2064163887325803 15.691218328357339 133 85 71 1.5919312654141449 7 2993 11 4621 6 3937 10 2815 12 2948 2 2859 1 2945
2596 8.1493072219519433 4.2170524637142721 15.748088010503654 117 77 69 0.91004386619634026 7 3976 6 3939 2 4434
2598 -1.1249423197780295 4.2607723597093985 16.042558946297106 138 90 78 1.1970595221991422 7 3973 6 3942 10 3939
2599 8.733914756788808 4.2555677830595053 15.708603060491708 135 94 85 1.2692293699624777 7 3981 11 4103 6 3944 10 4450 3 4632 1 3487 12 2940
2602 6.7065246540238999 4.3079675790279808 15.72172428328064 144 90 74 0.21134549118860199 11 4627 6 3952 10 3535
2603 6.5570394184097598 4.3228552774145683 15.7487119398742 139 92 76 1.6963552020771366 7 3991 6 3954 10 4325 12 2929 2 4422
2605 -7.5165521293775646 4.3162641986495212 15.561525290533163 112 71 65 3.1479624356417708 7 3987 6 3957 10 4245
2606 10.632318182816638 4.3895810971498319 15.610778179809293 114 80 70 1.0196977806493819 7 3992 11 4637 6 3958 10 3444 2 2895 1 3736
2607 9.0595596905609845 4.3557109265763492 15.524771992898991 139 105 96 1.6261579327710944 6 3959 12 2959 10 5607 11 4635
2608 9.7781436401040107 4.4135239155050732 15.619139305402189 124 84 72 0.48851590136239259 11 4641 6 3961 2 2884
2610 1.0200073683201456 4.4150276692349602 15.824179650148869 142 94 78 1.170284140146284 7 3408 6 3963
2612 13.374574236100628 -7.0514794784241657 20.728633472601601 182 181 176 1.242633343766693 7 3544 6 3969 1 5461 9 3474 8 3496
2613 -0.82086717315090407 4.5366824211119603 15.883935837449105 144 89 74 0.97586540801641064 7 3486 6 3970 10 3393 12 2344 5 2305
2614 6.497810887904504 4.4584429064175009 15.40195425499939 132 83 69 1.5401512639309907 6 3972 1 2951
2615 6.8063360153414356 4.5260557602348284 15.634843699540454 137 79 62 0.6687363847576262 7 4007 6 3973 3 4628
2616 6.3943021286018267 4.5403524893036931 15.679482881342565 141 85 67 1.3120007498939299 7 4009 6 3976 12 2946 2 2840
2618 13.515929156447649 4.6166070432988899 15.464994120773159 124 70 58 1.3876797323771706 7 4013 10 4512 12 3936 2 5531
2620 5.8207578682049919 4.5499431527809611 15.648029775826107 133 90 77 1.719656264130579 7 4016 6 3981 12 2939
2622 13.33769238153231 4.5906374665795067 15.371144896659978 107 67 57 1.4828679321876028 7 4012 11 4654 1 3765 2 5527 10 3317
2623 12.948007711900443 4.6408559955256532 15.494635926276512 104 67 58 1.8579366150783194 7 4021 3 5308 1 3762 2 5523 10 4507
2624 13.034268203013273 4.609098831168132 15.406897661948566 113 64 54 1.3392316991298578 7 4018 10 4109 12 4845 2 6187 3 6236 11 4653
2626 -5.3968361750542995 4.7306811319814477 15.878975080635517 108 62 52 1.4245895325456019 7 4026 6 3994 10 4279 5 3067
2627 0.68002381296936398 4.7128783631535924 15.986803834355786 69 77 80 1.3408474861058162 7 6359 6 3995
2628 2.4542987577705664 4.6294021795192544 15.693606808147068 134 101 92 1.8601223935856015 11 2783 6 3996 10 2961 3 2302
2629 9.2904924250154206 4.7162718084681003 15.470299086346143 121 72 58 1.5800235108994585 7 4044 11 5967 6 4003 10 4491 12 3896 2 3752 1 3753
2630 -7.2203801043383571 4.8339106399170495 15.929357083304135 110 75 69 2.8687848779105356 11 4650 6 4004 10 4980 5 4070
2633 -4.9286273215757825 4.8730621107037804 15.870424637184206 122 76 63 1.1430929138989527 7 4049 6 4019 10 4289 12 2329 5 3072
2634 6.2432384636065272 4.8301138655723035 15.517749082231495 136 85 66 1.0465130037708801 7 4057 6 4023 10 4481 12 2973 3 4653 2 2880
2635 13.668929652084413 4.93083050717589 15.389721852299321 104 57 47 0.64832640335374814 3 3373 10 3286 1 3787 2 5552
2636 13.046707927061142 4.983488037580547 15.518905236659245 110 62 52 1.1584162814140058 10 4545 1 3786 12 3422 2 5550
2638 10.268407952518132 4.9698226987903018 15.305681369974041 105 67 58 1.3489069925160746 7 4076 10 3417 12 3955 2 2937 6 4033
2639 -3.7586106769396448 5.1566723542222332 15.808725797043405 94 57 49 1.1792872037094551 7 4084 6 4041 10 4446 5 4075
2640 -4.2373611969316709 5.1390330138343954 15.71811045846092 122 70 56 1.5093974695854142 11 2806 6 4043 10 4443 12 2441 5 3084
2641 6.6396940556027646 5.113495681789189 15.390004329941513 118 74 63 1.0398111683824545 11 4689 6 4046 10 3312 12 2995 3 2837
2645 9.8625007981695401 5.2271355807559425 15.30834286763454 123 73 60 1.1711610904696355 7 4097 6 4055 10 4553 2 2954 1 3795
2646 10.306463097757062 5.23773160394658 15.356691558937529 115 73 65 0.66913113761488408 7 4096 6 4056 1 3796
2647 9.945561476775012 5.1987419272932005 15.219315131011284 112 72 64 1.4449814506351915 7 3487 11 4693 6 4057 10 3281 12 3025 2 2957 4 4592
2652 10.807457615395094 5.4830165471088881 15.110375384359919 106 67 58 1.6508186952737582 7 4111 11 4709 6 4073 10 4583 1 3820 12 4031 2 2981
2653 10.528194469504816 5.4844882466090645 15.103144114551153 117 70 60 1.6653477606100322 7 2915 6 4077 4 3417
2654 9.212130344926921 5.5475179644624992 15.16270686992056 117 74 58 1.6095802903201009 7 4116 11 4711 10 4577 6 4083 12 3054 3 3382
2655 -4.7493839619851173 5.6626348888319225 15.482666728152379 118 66 53 1.1793867466666459 7 4118 6 4087 10 4483 12 1832 5 3113
2657 2.0062653396777494 -4.2338561216410149 19.593928492603627 219 219 207 0.590836240025438 7 4656 6 4092 3 2365
2658 6.1835312296891765 5.6349157142360893 15.171629167454073 140 85 70 1.2490529207083743 7 4130 6 4098 12 3324 2 2963
2659 3.0480681302253996 -4.0677809161037608 19.413694152871127 226 227 220 0.43253026513171206 7 4289 6 4101
2660 0.10331048676558266 6.7025309586158288 13.663887502495042 189 212 232 2.6493178174712715 11 4845 6 4105 5 3266 10 4049
2662 2.7186696219469759 5.7206635683694733 15.20103285432663 142 98 87 0.74950345242090244 7 4136 6 4109 10 4551 11 5925
2663 2.8142050193847541 5.718977986392054 15.189607295777105 134 97 89 0.87858380033687877 7 4139 6 4110 10 4552 11 4735 3 2852
2665 -3.7479580023462873 5.9638978565409655 15.464390170062391 96 63 56 0.83261089645557262 7 4143 6 4116 10 4524
2667 -4.5475622857454967 5.9252891163917791 15.295766128004651 115 65 56 0.76125148114131358 7 4147 6 4118 10 4516
2670 6.0282512459999538 5.9398192158754295 15.04811479700056 121 69 56 1.2726412778564122 7 3418 6 4127 10 2780 12 3059 2 2327
2673 5.8920824861458296 5.9341103563542408 15.044706289048078 121 70 57 1.7632636834418045 7 4161 11 4749 6 4131 12 3058 3 2887 10 4586 2 2984
2674 10.35927055165371 6.0050695448297189 14.888363827592597 113 67 54 1.4022825315725262 7 4167 11 4751 6 4135 10 2821 12 3086 1 3875
2675 9.6380393564973517 6.0195763896448282 14.884863107708853 114 79 68 1.4766577372710599 7 2872 11 4756 6 4138 10 2813 12 3084 2 3029 3 3425
2676 2.4729523005527878 6.0473429580093967 15.137515699077651 138 80 66 1.0902199364646998 7 4172 6 4139 12 3057
